# .PCD v0.7 - Point Cloud Data file format
VERSION 0.7
FIELDS x y z intensity
SIZE 4 4 4 4
TYPE F F F F
COUNT 1 1 1 1
WIDTH 1266
HEIGHT 1
VIEWPOINT 0 0 0 1 0 0 0
POINTS 1266
DATA ascii
-5.6646585 0.032702327 2.0589912 652
-5.742177 0.13245255 2.0882971 697
-5.5601101 -0.073624372 2.0217412 350
-0.60023624 4.9317155 2.0117745 1543
-0.68179584 4.904366 2.0060792 1508
-0.84743756 4.9538407 2.0193074 1443
-0.93384206 5.0256934 2.0371268 1183
-0.5186227 4.8683801 1.9969876 2024
-0.76313275 4.8906412 2.0037558 1422
-0.43949473 4.7543478 1.970868 1471
-2.8946779 4.6511445 2.0620499 1719
-2.9648569 4.6000967 2.0577333 2005
-3.0302517 4.5383096 2.0509479 2074
-3.1014249 4.4930429 2.0484753 2106
0.15617648 4.0763087 2.0616937 511.5
0.050950773 4.1082296 2.0670543 209
-3.1549685 4.4065347 2.0358331 1687
0.35056773 3.9235933 2.028439 1184.5
0.25179964 3.9795744 2.0392644 828
-3.2586691 4.3371372 2.0324056 1823
0.50055563 3.7679503 1.9944239 1391
0.44442058 3.8461099 2.0122142 1335
-3.3729644 4.2917399 2.0356026 2427
0.55937099 3.7110305 1.9826216 1393
-3.4493887 4.1677566 2.0190914 1994
-3.5473228 4.092824 2.0155494 2320
-3.5927029 4.0056362 2.003648 1613
-3.67329 3.9868331 2.0099792 2175
-3.7081366 3.8842831 1.9942161 1644
-3.7944312 3.8756628 2.003787 2383
-5.8712735 1.938343 2.0599396 2541
-5.8969445 1.8596888 2.0562406 1739
-6.0263233 1.7551389 2.0726805 2324
-6.0582895 1.6810279 2.071631 1780
-6.1446476 1.6407938 2.0866017 2224
-6.159215 1.5560179 2.081032 1725
-6.284102 1.5364327 2.1073296 2513
-6.3020601 1.4534838 2.1032231 1839
-6.3783731 1.4033685 2.1159322 2163
-6.488543 1.3701702 2.1383035 2584
-6.505722 1.2864362 2.134717 2152
-6.5581474 1.2210903 2.141258 1843
-6.6203208 1.1600254 2.150718 1724
-6.6976757 1.1053531 2.164561 1870
-6.5920277 0.96550637 2.1283054 927
-5.8379631 0.54502517 2.1492901 648
-5.7254748 0.41978031 2.1068079 522
9.4919872 -8.5653992 2.3768542 14
9.3628731 -8.6572495 2.3720722 11
-1.0213925 5.0866966 2.052752 790
-1.1107914 5.1504483 2.0693083 9
-1.1922581 5.1081872 2.0617795 13
-2.268806 5.2590227 2.145565 2027
-2.3445759 5.1978302 2.1370471 1570
-2.4454422 5.0668721 2.1153119 1573.5
-2.5517974 4.9665546 2.1012468 1622
-2.6309252 4.9313312 2.0997717 2293
-2.6975913 4.8580689 2.0893078 2078
-2.7562971 4.764781 2.0741208 1622
-0.14852652 4.3742647 2.1339903 723
-2.8367324 4.7391496 2.0756357 2143
-0.078602135 4.3033323 2.1162326 519
-0.012634367 4.2066092 2.0917592 257
9.9442959 -8.3203278 2.4036567 16
-1.7720186 5.5073018 2.1735773 16
-1.8640367 5.5091147 2.1783669 14
-1.9442322 5.4465761 2.1684003 412
-2.0256231 5.3955855 2.1613681 1166
-2.1135924 5.378931 2.1626573 1758
-2.1937649 5.3279457 2.1561213 1581
-0.44264042 4.7615438 2.235424 1368
-0.29094663 4.5696149 2.1846421 1135
-0.36587489 4.6583061 2.2079406 1276
-0.21740803 4.4935603 2.1650083 989
-3.4768286 4.1321802 2.2805066 1758
-3.5452514 4.089026 2.2796767 1900
-3.5987771 4.0177197 2.2704082 1573
-3.6720164 3.9850581 2.2733157 1934
-3.7351055 3.9337478 2.2706883 1859
-3.7974081 3.8817554 2.2680779 2077
-3.8326044 3.7841613 2.2511661 1687
-3.9012229 3.7452059 2.2530868 1753
-3.9734366 3.711957 2.2571545 1968
-4.0174017 3.6338322 2.2468963 1618
-4.0810604 3.5877411 2.2472794 1848
-4.1360569 3.5288908 2.2436886 1601
-4.2211418 3.445858 2.2404583 1641.5
-4.2995319 3.3545923 2.2348547 1615
-4.3584061 3.3036506 2.2347836 1996
-4.4645338 3.2506371 2.2434039 2024.5
-4.5381212 3.1558268 2.2378829 1999
-4.5881968 3.0947084 2.2351985 1739
-4.6560059 3.0551949 2.2405741 1917
-4.7121105 3.0016272 2.2411411 2093
-4.7996941 2.92535 2.2440398 2114
-4.9121509 2.818737 2.2470238 2001.5
-5.0198612 2.7074037 2.249263 2037.5
-5.0814676 2.6055193 2.2441847 1647
-5.1491899 2.5636148 2.2516358 1874
-5.2264352 2.5298696 2.2629066 2046
-5.2792773 2.4729047 2.2649915 2056
-5.3566651 2.4375939 2.2765939 2337
-5.4098339 2.3802767 2.2792635 2188
-5.4247618 2.2906928 2.2680759 1691
-5.5096445 2.2599635 2.2830184 2097
-5.5389042 2.1832674 2.2778299 1625
-5.5950952 2.1283593 2.2827375 1880
-5.679009 2.0942173 2.2977724 2101
-5.7187953 2.025928 2.297261 1785
-5.7740459 1.9690763 2.3025069 1772
-5.844398 1.922515 2.3132536 2098
-5.9543447 1.8538561 2.3312213 2372
-5.9975805 1.7396181 2.3267119 1923
-6.0805349 1.6983387 2.3425186 1837
-6.1305537 1.6353564 2.3473446 1864
-6.2021079 1.5850184 2.3596365 1894
4.8759675 -5.2219357 2.4800084 19
4.674902 -5.3720827 2.4597292 13
4.5690365 -5.3932695 2.4383364 18
4.4990945 -5.4380331 2.4306731 11
-0.60344142 4.9361949 2.2827113 1504
-0.6850071 4.9119368 2.2768061 1474
-0.85068876 4.961762 2.2923503 1331
-0.93534511 5.0010309 2.3044567 1055
-0.52201593 4.8435659 2.2574923 1412
-0.76613569 4.8915143 2.2722261 1438
-2.7660019 4.7910714 2.3594558 1696
-2.8320677 4.7233653 2.3489838 1808
-2.8918927 4.641417 2.3345883 1576
-2.9683783 4.6077642 2.3343799 1963
-3.0244327 4.5219483 2.3192196 1603
-3.1065595 4.5046167 2.3243082 2089
-3.1823063 4.4710774 2.3249547 2378
-3.2216401 4.3533769 2.3008804 1810
-3.2982421 4.3246226 2.3034027 1587
-3.3547361 4.2519879 2.2930353 1624
-3.4281199 4.2172046 2.294282 2027
-6.2898545 1.5431187 2.377486 2373
-6.3046832 1.4583061 2.3713269 1802
-6.4055805 1.3753691 2.3886602 1901
-6.4766283 1.2747481 2.396632 1681
-6.535522 1.2131371 2.4060407 1603
-6.6352048 1.1707911 2.4288223 1573
-6.6713667 1.0964055 2.4313383 1383
-6.5739541 0.96066314 2.3915019 758
-1.1268638 5.3189015 2.3942831 592
-1.2142601 5.3200169 2.3971493 207
-1.386811 5.2969375 2.3969905 39
-1.4789081 5.3312216 2.4098384 27
-1.2967827 5.272028 2.3870411 98
-1.7307122 5.2448349 2.3988442 412
-1.0283599 5.1490617 2.3462255 835
-1.546775 5.1855125 2.3740361 98
-1.639034 5.2205505 2.3877237 273
-1.8138182 5.2156377 2.3956656 518
-1.9086995 5.2499385 2.4102442 640
-2.0404344 5.2398009 2.4158831 759
-2.1687818 5.2114129 2.4171484 849
-2.2623796 5.2258143 2.4276936 1281
-2.3465528 5.1996751 2.4273014 1597
-2.4211011 5.1380234 2.417263 1524
-2.4871054 5.0495772 2.3999178 1537
-2.5545039 4.9716697 2.3857224 1679
-2.6727905 4.9179769 2.3827891 2150.5
-7.3362279 -0.35579962 2.5280602 21
-7.3355594 -0.26891953 2.5307701 5
7.7886252 -37.997375 5.4566479 33
7.4031897 -38.376736 5.4995213 18
6.9939466 -38.675358 5.5317898 33
6.5705066 -38.92757 5.5582223 26
6.8213787 -11.783509 -0.77379489 46
3.4042673 -6.241869 -0.45033497 142
3.27179 -6.196322 -0.43346512 139
2.7167552 -6.6287341 -0.42544055 574
2.6344111 -6.6598077 -0.42180452 603
2.566175 -6.7203379 -0.42240787 630
2.4771445 -6.7368259 -0.41709527 575
2.3965936 -6.7711658 -0.41440922 578
2.3031693 -6.7753024 -0.40782288 631
2.2085633 -6.7744608 -0.40079606 608
2.1140316 -6.7713618 -0.39369881 772
2.0124996 -6.7474728 -0.38409686 896
3.0744638 -8.8374205 -0.32982031 646
2.9707258 -8.8853521 -0.32717079 673
2.8728099 -8.94876 -0.3260861 667
2.7648261 -8.986783 -0.32281774 723
3.7663937 -5.7079339 -0.44067881 107
3.6154737 -8.3905373 -0.33319485 541
3.3837748 -8.1710644 -0.30364498 700
3.1585014 -7.9480643 -0.27442339 785
2.9491491 -7.991972 -0.2644113 393
1.8922825 -6.6690288 -0.36763808 1139
3.1606603 -8.7488737 -0.32879877 620
1.1120586 -6.4974275 -0.3021622 230.5
0.99284673 -6.508893 -0.29729402 242
0.87102938 -6.5062428 -0.29109123 245.5
0.7568965 -6.5365243 -0.28920734 243
0.67695808 -6.5369296 -0.28575611 156
2.3104146 -9.0674868 -0.30503762 156
0.45370317 -6.6362219 -0.28798872 259
2.191617 -9.0670776 -0.29923728 229
0.33572006 -6.6502624 -0.285339 254
2.0554495 -9.0038404 -0.28818709 219
1.8828688 -8.8003159 -0.26532936 265
1.7286458 -8.6430416 -0.24685282 273
0.21970916 -6.6821156 -0.28506985 205
1.5786343 -8.4832935 -0.22852421 242
0.14191604 -6.7024293 -0.28496373 206
2.3219023 -3.8599446 -0.30432907 227
1.8048766 -3.1647072 -0.30228877 542.5
2.0549531 -4.1192389 -0.30161059 183
1.4935029 -3.3971803 -0.29170576 508.66666
1.9875877 -4.1724873 -0.30025461 191
1.1465819 -3.6237562 -0.28499848 642
0.81189156 -3.1193051 -0.28790379 496
1.0940449 -3.6749315 -0.28775615 618.5
0.67127669 -3.1851425 -0.28481632 518
1.6095855 -4.5003638 -0.30197674 710.5
0.97964334 -3.7021847 -0.28016567 613
0.6059339 -3.2325516 -0.28770095 611
1.5139046 -4.5706983 -0.3021839 819
0.87717438 -3.7571623 -0.27935013 592
0.53487301 -3.2662024 -0.28744888 602
0.4742471 -3.2695475 -0.28216657 691.5
1.4364438 -4.6126981 -0.30068463 903
0.7887733 -3.7845292 -0.27575207 608
1.3605595 -4.65905 -0.30025744 914
0.70083737 -3.8129678 -0.27289596 591
0.30329502 -3.3083873 -0.2752831 540
0.26569498 -3.3181159 -0.27437922 537
1.2414494 -4.6768866 -0.29250258 780
0.6183207 -3.8589215 -0.2741586 592.5
0.19352365 -3.3522289 -0.27649331 740.66669
1.1574557 -4.7024131 -0.28916132 901
0.53658974 -3.9109786 -0.27709991 617.5
0.46643996 -3.9196866 -0.27341875 589
0.079642534 -3.3797731 -0.27484852 767.33331
0.39729011 -3.9312179 -0.27064916 605
-0.037779927 -3.3861079 -0.26932338 608.33331
0.76611614 -4.6068964 -0.24650806 1372
0.80552959 -4.5445995 -0.2402066 1842
0.30666506 -3.951827 -0.2684561 579
0.23331332 -3.9407556 -0.26186788 593
-0.15289545 -3.4079261 -0.26853776 608
0.72825646 -4.6793461 -0.25451252 874
0.16857076 -3.9725568 -0.26409978 601.5
2.9695766 -7.7868724 -0.25177515 723
0.66139436 -4.7596469 -0.26199183 625
0.076990604 -3.9880447 -0.26217476 616.5
0.0064659119 -3.9860873 -0.25840664 628
0.57548547 -4.7689509 -0.25815701 712
0.51542974 -4.7616544 -0.25362375 705
-0.064045429 -3.9807131 -0.25431335 627
-0.13464141 -3.9692659 -0.24932189 590
0.431499 -4.7762499 -0.25120285 658.5
-0.2013551 -3.9984462 -0.25249302 565
1.3521256 -6.0748224 -0.26962665 388
1.2279043 -5.9233103 -0.24583188 387
1.1291866 -5.8440347 -0.23150063 374
1.0503709 -5.8273244 -0.22525021 291
0.34578514 -4.7807131 -0.24744219 661
0.28810143 -4.779161 -0.24440554 673
0.20724297 -4.8105445 -0.24541688 653
0.12558389 -4.8406458 -0.24645916 658
0.067753792 -4.8363028 -0.24351424 634
0.014016151 -4.8665996 -0.24608034 689
-0.07577157 -4.8236637 -0.23650375 644
4.9706097 -11.382239 -0.16336434 158
-0.15967226 -4.8363533 -0.23580131 585
-0.2189343 -4.7919369 -0.22738552 410
-0.30200648 -4.8107209 -0.22814423 450
-0.38692713 -4.7757764 -0.22094558 353
-0.44217205 -4.8036098 -0.22412284 267
-0.49806285 -4.7526665 -0.21542729 154
-1.6714187 -3.7922518 -0.2295329 535
-1.7110014 -3.7665606 -0.22714856 589
1.4531996 -8.4064655 -0.2175415 291
1.3040984 -8.2130833 -0.19703168 196
1.1965032 -8.1888809 -0.19098413 134
0.6382699 -8.5148573 -0.1964106 188
3.5746689 0.26462817 -0.37426013 762
3.5406506 0.33645391 -0.37165633 1165.5
3.507493 0.4073931 -0.36940348 1363
3.4663086 0.45104301 -0.36399513 1299
3.3806653 0.53522575 -0.35265586 1309
3.6337671 0.015362024 -0.37338439 624
3.5787778 0.087715626 -0.36569947 631
3.5643806 0.18743932 -0.36791927 649
3.619813 -0.1123637 -0.36510122 567.5
3.6102903 -0.036668777 -0.36631069 604
2.3124571 1.4984751 -0.37606293 568
2.1912425 1.6620582 -0.37729275 546
2.1182857 1.7595509 -0.37923855 437
3.5497007 -0.18890631 -0.34794289 508
2.7128325 0.82316059 -0.37685168 570
2.5850785 0.9965685 -0.36707851 557
2.5614824 1.0311265 -0.36589855 590
2.4381549 1.2430933 -0.36586234 701
2.4084632 1.3191429 -0.37002486 860.33331
2.3816359 1.3972614 -0.37547573 910
2.286963 1.4830824 -0.36843559 576.5
2.2597687 1.5613937 -0.37495196 561
2.1715808 1.6483607 -0.37113342 542.5
2.0490232 1.8082534 -0.37431097 198
1.8836532 2.03953 -0.38595518 352
1.7444276 2.1289735 -0.37890494 573
1.6278908 2.2710116 -0.38829154 127
2.8327155 0.55208361 -0.37880889 577
2.7688174 0.62266016 -0.37007469 545
2.7390771 0.67910582 -0.36843657 550
2.703681 0.75506461 -0.36769938 554
2.6563115 0.86964363 -0.36885068 549
2.6038065 0.91627574 -0.3620176 387
2.8778853 0.30340278 -0.37002301 568
2.8148971 0.39865422 -0.36202377 531
2.8179057 0.48428392 -0.36957991 547
2.7717404 0.58053279 -0.36693826 540
2.9457242 0.11995375 -0.37457493 570.5
2.8835816 0.19798958 -0.36435676 576.5
2.8767335 0.26071239 -0.36680517 577
1.7415755 1.6053995 -0.39679152 54
1.778836 1.683264 -0.42105973 30
2.936933 -0.051138759 -0.36350068 560
2.9184146 0.032456398 -0.36316931 582
2.0832729 0.98349953 -0.36874282 548
1.9054906 1.225318 -0.36311293 501.5
1.8542989 1.2956458 -0.36315542 471
1.8121436 1.3507288 -0.36325124 459
1.7560577 1.4382774 -0.36679718 394.33334
1.6969869 1.5021262 -0.36590096 241.5
1.6006116 1.6243813 -0.36982736 90
1.3890395 1.9064695 -0.38970867 44
2.9440613 -0.15691364 -0.36067107 560.66669
2.2655926 0.59863067 -0.36679661 535
2.1407607 0.74243248 -0.35045227 469
2.1222141 0.84719461 -0.35943675 488
2.0857482 0.92683727 -0.36108953 537.5
2.0323577 1.0366979 -0.3638435 524.5
1.9857532 1.0912642 -0.3605983 531
1.8536056 1.2543073 -0.35558426 441
1.5128591 1.684292 -0.36407557 258
1.4602022 1.7287078 -0.36305147 422.33334
1.405894 1.8210486 -0.37312558 361.33334
1.313355 1.9260751 -0.37995711 36
1.275364 1.9621978 -0.38161975 24
2.277478 0.47350168 -0.35678852 501.5
2.2453165 0.55588454 -0.35656485 509
2.1859808 0.64766186 -0.35095134 476.33334
2.1401584 0.74206555 -0.35030225 490
2.365454 0.16518831 -0.35449752 503
2.3423948 0.25190425 -0.3546665 521
2.2979093 0.35126102 -0.35073504 495.33334
2.4128497 -0.027786136 -0.3556627 531
2.3910761 0.042193413 -0.35357419 515.33331
2.3554649 0.11026776 -0.34786835 475
2.486933 -0.31726837 -0.3647801 1363
2.4214621 -0.20734239 -0.34991771 563.66669
2.3900442 -0.10073578 -0.34557414 502.33334
2.4452353 -0.37027133 -0.35169005 1385
2.4163141 -0.27910864 -0.34596497 652
2.3727283 -0.43754888 -0.32993692 1356
2.3039794 -0.50184846 -0.30975524 1364
3.380733 -2.0774939 -0.32648072 521
3.3344967 -2.0552948 -0.31687301 520
3.3133364 -2.2205806 -0.32108742 736
3.3100634 -2.1597254 -0.31739092 647
3.2681777 -2.285995 -0.31644636 665
3.2117569 -2.3447104 -0.30965337 450
3.1327643 -2.3891232 -0.29831058 252
3.0558968 -2.4630363 -0.28949794 100
2.9713922 -2.5304749 -0.27940822 173.5
2.9663124 -2.651607 -0.28710198 574.5
2.4924312 -2.0890989 -0.30357042 62
2.8960426 -2.7284756 -0.28104722 829
2.4536378 -2.1929309 -0.30465466 164
2.455658 -2.1168036 -0.29832911 31
2.8128417 -2.7945583 -0.27249312 900.5
2.4328849 -2.3118627 -0.31156427 452
2.3835206 -2.2763817 -0.2982361 421
2.0538781 -1.8651184 -0.31474358 36
1.9726666 -1.7703395 -0.28508013 73
1.9304972 -1.6826382 -0.26579967 254
2.7287722 -2.8584421 -0.26409167 759.5
2.3521585 -2.3886757 -0.30311421 517
2.0057349 -1.9220977 -0.30964494 240
1.9438008 -1.8801699 -0.29019043 281
2.6707904 -2.9432144 -0.26209331 1009
2.3122253 -2.4688063 -0.30365777 547.5
1.9510264 -2.0198164 -0.3083421 454.5
1.9390697 -2.0111277 -0.30446798 449
2.5843582 -3.0028546 -0.25389051 945.5
2.2301826 -2.5722806 -0.29935566 540
2.2491326 -2.5022757 -0.29517585 523
1.8897085 -2.1134634 -0.30608994 496.33334
2.5151706 -3.1124506 -0.25345674 978
2.5335488 -3.0596695 -0.25129002 935
2.1838884 -2.6493392 -0.29957491 543
1.8068349 -2.1898847 -0.29787669 508.66666
2.4486027 -3.1543384 -0.24753444 1003.5
2.132668 -2.7227762 -0.29895955 523
1.7502455 -2.2633593 -0.29590523 488.5
2.3706417 -3.219893 -0.24256968 987.5
2.0508051 -2.8294549 -0.29763597 525
2.0700493 -2.754499 -0.29164496 513
1.690816 -2.3610892 -0.29774219 443
1.7021865 -2.2947123 -0.2902576 459
1.9657153 -2.8689094 -0.28806469 516
1.6314856 -2.4339495 -0.29682028 466
1.9013398 -2.9630914 -0.28974283 567
1.9148557 -2.9114718 -0.28508064 519
1.5582073 -2.4929674 -0.29165336 422
1.8366545 -3.0244763 -0.28763837 611.66669
1.4801377 -2.545634 -0.28534198 409.66666
1.9703467 -3.3270822 -0.1983718 1051
1.41518 -2.644011 -0.29002792 361.66666
1.5585402 -3.3295677 -0.29020736 487
1.1780802 -2.8315449 -0.2834188 299.33334
1.121423 -2.8838482 -0.28438687 336
1.0216997 -2.7899036 -0.25107056 272
1.666316 -3.7568245 -0.21194497 1315
1.5741297 -3.7009892 -0.19458935 876
1.4024354 -3.4230268 -0.28356573 468
0.90062034 -3.0365593 -0.28254145 328
0.85184884 -3.0676298 -0.28241807 367.5
1.1528797 -3.5330074 -0.27053028 529
0.75633955 -3.1372476 -0.28477758 473
0.69985557 -3.1524396 -0.28121579 522
0.36965263 -3.25809 -0.26994142 547.33331
1.009426 -4.4601183 -0.24323677 776
0.91359019 -4.4339204 -0.23217681 1651
0.85488212 -4.5178018 -0.23984429 2048
-0.15729344 -3.367012 -0.25905442 564.5
-3.1819696 0.52297294 -0.24890341 469
-0.25200117 -3.3905735 -0.26053599 567.5
-0.33056569 -3.3681858 -0.25276157 497.5
-0.39000845 -3.3164575 -0.23920088 369
-3.2190683 0.40906239 -0.2462969 547.5
-3.215055 0.46094942 -0.25041923 537
-0.46553743 -3.3104858 -0.23618865 294
-0.53974688 -3.2503462 -0.22114295 103
-3.2915907 0.10842705 -0.23955634 567.5
-0.27412212 -3.9422591 -0.23950374 489
-0.32597423 -3.8084846 -0.21259794 379
-3.2871106 -0.046823859 -0.22912693 575
-3.292305 0.022096753 -0.23432443 601.5
-0.38800514 -3.9314294 -0.23448893 354.5
-3.3119447 -0.16595566 -0.22974502 593
-3.3222113 -0.096396208 -0.23540041 598.5
-3.7403142 0.34791064 -0.23706739 562
3.9956882 -9.6839294 -0.059724927 310
-0.45607185 -3.9109855 -0.22917853 288
-0.52318275 -3.8827672 -0.22271287 129.5
-3.29636 -0.38862228 -0.21901384 449
-3.3239942 -0.28651464 -0.22845495 517
-3.3276105 -0.23470032 -0.2310444 547.5
-3.7554908 0.24830306 -0.23314908 625
-3.7444596 0.30775774 -0.23499048 620
3.7672815 -9.4943361 -0.042545319 725
-3.2859783 -0.52517915 -0.21457306 148
-3.3249357 -0.47710097 -0.22471921 307
-3.7870076 0.089540839 -0.22985144 668.5
-3.7763348 0.16972888 -0.23238567 640
3.6579328 -9.5560713 -0.039610699 773
-1.3452511 -3.2212031 -0.23252639 196.5
-3.275269 -0.69689369 -0.21212277 229.33333
-3.3031738 -0.59649754 -0.21858928 73.333336
-3.7964771 -0.051531076 -0.22451383 711
-3.7996073 0.0094355345 -0.22817157 681
3.5524516 -9.6275225 -0.037303269 738
-1.4605596 -3.207854 -0.23667043 327.25
-3.2147098 -0.96497554 -0.20316383 109
-3.2693009 -0.90770584 -0.21453659 50
-3.2699652 -0.81895947 -0.21263269 389.75
-3.8111711 -0.17247248 -0.22241753 672
-3.8096957 -0.11172128 -0.22459665 714
3.456202 -9.722681 -0.036352649 748
-1.5836499 -3.1561174 -0.23419255 505.66666
-3.2318473 -1.0056159 -0.2087284 58
-3.8309774 -0.23331106 -0.2243599 630.5
-0.55305672 -4.7297106 -0.21113157 54
-1.7719083 -3.0649531 -0.2308661 512
-1.856349 -3.0222011 -0.2302413 497
-1.9156938 -2.9719267 -0.22614235 472
-2.8523967 -1.7772989 -0.18135296 86
-3.7884083 -0.55607128 -0.20786251 229
-3.8358364 -0.37624574 -0.2211228 508
3.3623221 -9.8270807 -0.035947755 770
-0.046168804 -5.4481454 -0.13625222 118
-0.1210351 -5.3048077 -0.11780628 1090
-0.21737599 -5.253912 -0.10956237 577.5
-1.9831227 -2.9781649 -0.23466513 520.5
-2.0609729 -2.9225526 -0.23260409 500
-2.9677179 -1.7684135 -0.20430057 464
-3.7815514 -0.6773591 -0.20542394 61.5
3.2708073 -9.9417696 -0.036127508 996
-0.34079647 -5.2515516 -0.10657047 1012.5
-1.5339099 -3.8109231 -0.22594488 80
-2.1684341 -2.8795729 -0.2373739 529.66669
-2.2473068 -2.7920351 -0.23123246 471.66666
-2.3271508 -2.741174 -0.2328788 558.5
-2.3803613 -2.6552415 -0.22532025 510.66666
-2.5770102 -2.4278319 -0.21827336 528
-2.6798573 -2.3223085 -0.21960944 503
-2.7211971 -2.1869359 -0.20747317 230.5
-2.9758842 -1.8158485 -0.21105872 472
-3.7987728 -0.82486451 -0.20911229 389
-3.7982554 -0.74155641 -0.20873247 208
-0.43240285 -5.2881098 -0.10902455 784
-1.5973469 -3.7847848 -0.22431144 183
-2.4858623 -2.6064329 -0.23280096 541.66669
-2.5525241 -2.5392849 -0.23211375 461.5
-2.6081729 -2.4610634 -0.22862719 563
-2.6608994 -2.3815019 -0.22523074 523.5
-2.7294385 -2.2929077 -0.22408061 525.5
-3.6677322 -1.1694853 -0.18838823 61
-3.7987587 -1.0354522 -0.21160065 382
-3.7980082 -0.95028436 -0.21007556 485
-3.8208015 -0.91287422 -0.21429054 541
-4.4873152 -0.10925269 -0.21289261 683
3.173563 -10.046291 -0.035816103 1318
0.89152741 -7.1711926 -0.10277534 23
0.76867247 -6.9859877 -0.084278166 26
-1.7690065 -3.7257528 -0.22333902 575
-1.8182082 -3.6639543 -0.21552561 535
-3.6130142 -1.3213768 -0.18278874 193
-3.7955213 -1.1207567 -0.21281511 107
-4.5244284 -0.28062487 -0.2130437 681
-1.9929878 -3.6153793 -0.21932948 622
-2.0639815 -3.5540483 -0.21443364 560.66669
-2.1326954 -3.491039 -0.20948243 548
-3.5986805 -1.5562023 -0.19106784 77.5
-4.470057 -0.45019293 -0.19897759 291
-1.6700463 -4.2892985 -0.15740015 141
-2.1813889 -3.4883409 -0.21323259 571
-2.2366614 -3.44965 -0.21181661 614
-2.3178725 -3.3667321 -0.2060596 778
-2.4009128 -3.3330631 -0.20893162 1061
-3.3584175 -2.1092191 -0.18702467 58
-4.4999456 -0.52564728 -0.20240921 501.5
-1.6465868 -4.3986158 -0.17245241 331
-2.4501495 -3.3279202 -0.21319629 1183
-2.5069871 -3.2518873 -0.20754418 1197
-2.5842319 -3.1695299 -0.20370138 1036
-2.6665394 -3.1326604 -0.20786723 607.5
-2.7249157 -3.0637441 -0.20499885 555
-2.8042819 -2.9873896 -0.20426205 637
-2.8436453 -2.8992066 -0.19737796 474
-3.135735 -2.5228362 -0.19258416 337
-3.4270799 -2.0783973 -0.19626206 464.5
-1.7549938 -4.3921499 -0.17541903 992
-1.7932895 -4.336915 -0.16897522 1114
-1.8601186 -4.2881227 -0.16481727 1251
-1.9111549 -4.1973772 -0.1542293 1231
-1.9671383 -4.1273394 -0.14709432 1159.5
-2.1382351 -3.9476709 -0.1315982 1251
-2.2010503 -3.9062128 -0.12982722 1156.5
-2.2698445 -3.8218555 -0.12297827 1156.5
-2.7952909 -3.0458343 -0.21124196 655
-2.8377411 -2.9590204 -0.20470494 604
-2.9088554 -2.9069099 -0.20713271 662
-2.9426734 -2.8463891 -0.2038072 592
-3.016938 -2.7663684 -0.20404309 602
-3.0842721 -2.6798396 -0.20317259 637
-3.1348736 -2.6082973 -0.20227394 549
-2.3516028 -3.7670164 -0.12136763 1350
-4.3702116 -1.273645 -0.1782824 156
-4.4026151 -1.2313821 -0.1830682 226
-4.4877563 -1.1243553 -0.19621004 624
-4.49652 -1.0241702 -0.19724548 328.5
-4.4642696 -1.1957723 -0.19287805 476
-5.4810157 -0.25877643 -0.19045208 808
4.0132184 -0.17855191 -0.27137393 1618
3.9039359 -0.044289947 -0.25851166 1739
3.8508017 0.034058452 -0.25303471 2041
3.8234215 0.085814476 -0.25081825 2177
3.9548299 -0.12435627 -0.26374897 1530
3.3458304 0.57769537 -0.34877518 1317
3.2840981 0.63797641 -0.34103969 1226.5
3.2320356 0.69902134 -0.33549938 1267
2.5462852 1.5441918 -0.29392508 2285
3.063879 0.70420659 -0.3027783 1320
3.0226192 0.76324761 -0.29963294 1393
2.3945949 1.6782655 -0.28527558 1775
2.3225989 1.7583296 -0.28423551 1551.3334
2.2648699 1.8478853 -0.28753132 1457.5
2.2181642 1.8926426 -0.28648573 1244
1.9504366 2.1650195 -0.28751558 1505
1.9158731 2.2202306 -0.29160196 1521.5
1.8539202 2.2782722 -0.29242405 1475.5
2.8672254 0.8098563 -0.27337226 412
2.8676376 0.90151209 -0.28188667 1102
2.8077469 0.94987434 -0.27497223 1019
2.6911106 1.066102 -0.26451311 1178.5
2.6521792 1.1415092 -0.26526222 1877
2.6306021 1.2014887 -0.26787078 2075
2.5542216 1.3054812 -0.2657932 2027
1.7646232 2.337172 -0.28997725 845
1.6209728 2.4279439 -0.28654605 134
1.4089992 2.6774697 -0.30640304 1099.5
1.3447177 2.7777619 -0.3182902 1107
1.2859519 2.8497071 -0.32575437 1127
2.6928015 0.9536041 -0.2533077 392
2.2042801 1.5732622 -0.36547041 542
2.1100376 1.7030216 -0.3679567 461
2.0137122 1.779983 -0.36246496 222
1.956583 1.861599 -0.36621103 60.5
1.8805206 1.9268775 -0.36412382 171.33333
1.8228086 2.0370042 -0.37458515 495
1.7782291 2.0774481 -0.37460354 534
1.6710893 2.1678002 -0.37424305 304
1.4422085 2.6119072 -0.29790473 1011
1.243982 2.8646955 -0.32414612 1103
1.1802006 2.8847351 -0.32136324 947
1.1335163 2.9856954 -0.33681932 1107.5
1.0049145 3.1340923 -0.35463932 1180
0.93573427 3.204442 -0.36293149 1214.5
0.8695904 3.2874656 -0.37454525 1241
0.79139102 3.3450027 -0.38024637 902
2.9460649 0.40645361 -0.25694934 576
1.6900425 2.1295376 -0.36972034 456
1.6425498 2.1958175 -0.37519005 228
1.5032465 2.215055 -0.35652244 36
0.7162472 3.3425503 -0.37386721 616
0.65340436 3.375102 -0.37611386 586.5
0.16531622 4.012022 -0.32214797 1295
0.094523072 4.0806332 -0.3320038 1266.5
0.024493933 4.1716323 -0.34616578 1278
-0.025606751 4.2169642 -0.35282555 1306
-0.074449062 4.2862043 -0.36399785 1332
2.4313383 1.0202658 -0.33534399 444
2.3569989 1.0516109 -0.32270533 652.5
2.3519421 1.1131985 -0.32954833 685
1.4233155 2.1776581 -0.33597583 6
1.1497848 2.533411 -0.37504598 442
1.1184332 2.5585747 -0.37673482 520
0.95181668 2.8607025 -0.29362571 901
0.57625425 3.3618701 -0.36777902 546
0.51441598 3.398572 -0.37146711 518.5
0.44633019 3.4135537 -0.37028536 496
-0.1568675 4.3080745 -0.3656843 851
-0.24138069 4.3030882 -0.36259866 667
2.3501389 0.86325133 -0.29819334 778
1.0472364 2.5533431 -0.36643654 470
0.97977883 2.5941334 -0.36765796 498
0.37686479 3.4218831 -0.36784774 513.5
-0.32567334 4.2939081 -0.35900638 648
1.9438179 1.1910328 -0.25212598 741
1.0627944 2.3160143 -0.31374574 60
0.92416763 2.6150801 -0.36596948 528
0.85427195 2.6509733 -0.36654812 495.66666
0.74815506 2.7029271 -0.36755309 522
0.71993357 2.7378047 -0.37314135 548
0.30482316 3.418627 -0.36295909 557
0.21251822 3.4271207 -0.3598707 541.66669
-0.43705702 4.303947 -0.35867035 640
2.5855844 0.29691291 -0.29968494 529
1.9475193 0.9946335 -0.33568308 653
1.8899074 1.1562896 -0.34744161 393
1.521185 1.6222128 -0.35234588 158
0.63737273 2.7440908 -0.3665078 545
0.56966031 2.7881558 -0.37099287 595
0.10218763 3.46419 -0.3625831 607.5
-0.54875755 4.3043685 -0.35697287 624.5
1.8580174 1.0612513 -0.32370529 308
1.1631422 1.9034903 -0.34682491 129
1.1142997 1.9499176 -0.34969649 240.66667
1.0337839 2.0402036 -0.3588286 444
0.96975458 2.0974257 -0.36324441 494
0.53106892 2.7975106 -0.3698355 533
0.4736762 2.8123939 -0.36857632 531
0.028881311 3.4405985 -0.35414195 611
-0.038014412 3.4585323 -0.35537475 574
-0.65932 4.272069 -0.34969148 631
1.7515013 1.0395541 -0.29358572 182
1.021951 1.9352367 -0.33005348 101
0.93729293 2.0880065 -0.35574767 459
0.7882148 2.1905847 -0.36077365 469
0.38888144 2.8035977 -0.35938132 509
0.30037856 2.8509884 -0.36465096 473.66666
-0.10753655 3.4550114 -0.35198575 614
-0.17516911 3.4695034 -0.35290757 582.5
-0.74046278 4.2303295 -0.34128907 649
-0.7955792 4.2301092 -0.34087965 673
2.5758023 -0.2394743 -0.26847124 1263
0.82806325 2.0568581 -0.33066514 84
0.80037814 2.1082611 -0.34032503 243
0.73874128 2.205483 -0.35794726 452
0.64496326 2.2436244 -0.35606027 469.5
0.19425058 2.827002 -0.35112989 299
0.14235151 2.863184 -0.3570601 174
-0.24515104 3.4517269 -0.3468264 568
-0.31252074 3.4705215 -0.34918341 602.5
-0.87921596 4.2387104 -0.34210044 667.5
2.5012066 -0.31287909 -0.24811502 1285
2.5406733 -0.27666867 -0.25875035 1290
0.54794717 2.274353 -0.35258889 469.5
0.46458799 2.3384051 -0.36124349 536.75
0.38489789 2.3675544 -0.36106849 511
0.099693537 2.8481712 -0.35061425 149
-0.010787487 2.8933396 -0.35616979 61
-0.40364337 3.4830279 -0.3498621 611
-0.47233748 3.4795406 -0.34777325 577
-0.9903338 4.2390618 -0.34203216 700.5
2.4460073 -0.36549532 -0.23338205 1275
0.31728542 2.3785334 -0.35757524 402.66666
0.029834867 2.7864313 -0.33072364 77
-0.072804332 2.8707714 -0.34730047 56
-0.54058278 3.4424343 -0.33849499 569.5
-1.096776 4.2000875 -0.33517918 689.5
2.3660471 -0.43229949 -0.21261539 1288
0.21604395 2.3294673 -0.33393916 128
0.14148343 2.3713207 -0.3399891 153.5
0.087210774 2.4324603 -0.35381016 83
-0.13822758 2.8125756 -0.32924929 77
-0.18972075 2.8683989 -0.3416844 166
-0.63071716 3.4332545 -0.33542657 578.5
-0.69771051 3.4163353 -0.33116561 567
-1.2342819 4.1881056 -0.33392236 716.33331
3.5014422 -2.0974669 -0.18318352 597
3.4685848 -1.9937364 -0.17533198 219
0.13473558 2.3436399 -0.33124304 217
-0.25054693 2.8309126 -0.32968771 251
-0.32452798 2.8654802 -0.33639991 404.33334
-0.40040338 2.8872905 -0.34008363 550
-0.7660358 3.4238679 -0.33257741 601
-1.3395281 4.1518364 -0.32843265 653
-1.3977897 4.1625385 -0.3311457 727
3.4760973 -2.1754541 -0.18171711 883
2.2161283 -0.56068355 -0.28471032 1291
-0.027408481 2.3674729 -0.32664853 284
-0.12151229 2.4001589 -0.33084792 401
-0.47759199 2.874685 -0.33524558 522.66669
-0.83357275 3.4195795 -0.33158177 588
-0.89943457 3.3988566 -0.32721013 596.5
-1.4786531 4.1448946 -0.32923847 713
3.3941514 -2.2246833 -0.17113243 716
2.1442561 -0.61787021 -0.26459178 1252.5
-0.18738121 2.4020426 -0.32801732 301
-0.23414743 2.4284213 -0.33384347 215.5
-0.59198087 2.8663461 -0.331523 529.66669
-0.99059868 3.4027364 -0.32870007 626.5
-1.5592239 4.1259284 -0.32729119 718
3.3126409 -2.3025646 -0.16187577 739
2.0528593 -0.68453497 -0.23961434 1174.3334
-0.41273206 2.5213132 -0.35582435 67
-0.70680535 2.8644242 -0.33043307 533.33331
-1.0558317 3.3802853 -0.32446361 642
-1.1276337 3.3993976 -0.32970339 637
-1.607154 4.0908003 -0.32198066 695
-1.6600319 4.0760632 -0.32052642 680
3.2324853 -2.3487656 -0.1519368 510
1.9698728 -0.74849409 -0.21755527 1088
-0.46528631 2.4058166 -0.31977394 253.5
-0.53034288 2.4118466 -0.32052222 372.5
-0.81762671 2.8210523 -0.31949109 551.66669
-1.2107252 3.3520021 -0.32086179 602
-1.2801195 3.3533511 -0.32269198 612
-1.7375549 4.0479498 -0.31743264 677.5
1.9003061 -0.81108266 -0.19986026 1088
-0.61253542 2.4232624 -0.32324526 431.33334
-0.68046629 2.4563732 -0.33308589 529
-0.91557807 2.8388653 -0.32516146 556.5
-0.96988118 2.8151438 -0.31989586 564
-1.347854 3.3451457 -0.32266387 610.5
1.8307414 -0.87049258 -0.18265778 1015
-0.74332172 2.4130843 -0.32038435 516
-1.0435605 2.7957966 -0.3164998 555
-1.4289924 3.2979956 -0.31487101 538
-1.9521792 3.9978771 -0.31489116 606
-0.8238613 2.3981099 -0.31684673 539.5
-0.88966835 2.3967195 -0.31771898 537
-1.1532185 2.7649355 -0.31165078 534.66669
-2.0194907 3.9420619 -0.30740672 310
-0.97051704 2.38326 -0.31589827 537.66669
-1.0412166 2.4013124 -0.32364711 546
-1.2408538 2.7265182 -0.30493873 510
-1.5681031 3.2161458 -0.30226475 414
-1.6442943 3.2340457 -0.30923396 572
2.1509733 -1.8310767 -0.21099198 119
-1.0916841 2.3258686 -0.30337018 483
-1.1034857 2.3765478 -0.31890321 510
-1.2575196 2.5728378 -0.26657647 218
-1.3016104 2.5969839 -0.27464387 83
-1.4141457 2.7145095 -0.30969831 512
-1.3935467 2.7783024 -0.32471821 576
-1.7123609 3.2246482 -0.31026316 560
1.977751 -1.6845989 -0.16283005 497
1.8891112 -1.5597878 -0.24360318 910
1.8406981 -1.5329995 -0.22911438 752.5
1.6983173 -1.3660767 -0.17832732 886.5
-1.1899936 2.317368 -0.30568948 495.33334
-1.4576163 2.7253051 -0.31468233 517
-1.2607013 2.3266747 -0.31237262 503
-1.3093255 2.3169575 -0.31258518 519
-1.4645976 2.514842 -0.26262438 107.66666
-1.3780549 2.2639909 -0.30203772 451
-2.4726338 3.6320057 -0.27423492 127
-2.5959916 3.751415 -0.3007066 495
-1.4687705 2.2276714 -0.29865322 325
-1.5931414 2.4510772 -0.25512934 32
-1.7020514 2.4323168 -0.25855553 67
-2.6335793 3.7047458 -0.29501823 405
-1.5164763 2.1734891 -0.28735891 186
-1.8114231 2.4928355 -0.28182614 144.66667
-2.1099317 2.9172659 -0.26974556 122
-2.2250526 2.9936731 -0.29324847 533
-2.7213182 3.6918647 -0.29788652 496
-1.6526332 2.0865905 -0.27617723 164
-1.9480195 2.5125659 -0.29823938 458.33334
-2.32093 2.9804127 -0.29776388 534
-2.7996893 3.607892 -0.28884149 394.5
-1.6833694 2.0766554 -0.27665663 268
-1.7821996 2.1242754 -0.30030504 484
-2.0416446 2.4457178 -0.29139572 449.33334
-2.3809724 2.903923 -0.28746849 396.5
2.1259675 -3.1019797 -0.19547637 1633
-1.861254 2.0634449 -0.29318959 306.33334
-2.1090586 2.3743634 -0.28175497 237.5
-2.4449439 2.8373296 -0.27983502 183.5
2.0534635 -3.1638622 -0.19182147 2007.5
-1.9202423 2.0034716 -0.284697 107.5
-2.1510055 2.3351448 -0.27725804 111
-2.2369227 2.3620739 -0.2925978 52.5
-2.5694783 2.782253 -0.28020594 49
1.9762001 -3.2574837 -0.19143459 2093
1.9674591 -3.1723268 -0.18093902 1620
-2.6226997 2.6647341 -0.26312044 132
-2.6022489 2.7119279 -0.26998475 21
-2.0709119 1.8522152 -0.26667035 221.33333
-2.3335979 2.2032731 -0.26891661 216.66667
-2.6915891 2.6459494 -0.26630142 177
-3.138505 3.2819641 -0.26020604 70
-2.1549203 1.8026534 -0.26696891 375
-2.4538248 2.1732941 -0.2773717 371.66666
-2.7137313 2.5665939 -0.25400972 87
-2.8087263 2.6137731 -0.27215078 442
-3.3225331 3.2517238 -0.26964363 461
-3.2867696 3.2952414 -0.27342772 403
-2.2560837 1.7713189 -0.27524307 426.66666
-2.5349746 2.1214974 -0.27706334 435.5
-2.8934989 2.5743673 -0.27393448 499
-2.9100158 2.5934014 -0.27910003 481.5
-3.4000413 3.2155175 -0.27040792 535.5
-2.3286948 1.7047886 -0.2716324 466.66666
-2.4995828 1.838482 -0.21509762 69
-2.5554864 1.9488357 -0.2448311 552
-2.6085153 2.0886846 -0.28022775 500.5
-2.9711607 2.5252318 -0.27366182 512
-3.0202646 2.511395 -0.27666953 584
-3.5004165 3.1620591 -0.2707569 567
-2.409729 1.6473911 -0.27248365 495
-2.5409355 1.7800766 -0.20963314 358.66666
-3.0380018 2.4306829 -0.26485896 556
-3.5697422 3.114095 -0.26962784 588
-2.4953876 1.5695851 -0.27077764 423.25
-2.7018704 1.8088762 -0.2388647 765
-3.6282899 3.0542798 -0.26612571 617
0.82488531 -2.7956457 -0.10928066 339
-2.5145659 1.4352522 -0.24616939 320
-2.6584058 1.6032238 -0.19416641 232
-2.8260331 1.8193815 -0.25967324 461.5
-3.7128284 2.9813352 -0.26333195 612.5
-2.5703003 1.3977478 -0.24919206 731
-2.6347947 1.4062321 -0.26339588 725
-2.773643 1.6066178 -0.21299994 362
-2.9280424 1.7803186 -0.26846859 582
-3.1733611 2.0433469 -0.21794854 260
-2.7008719 1.372573 -0.26990208 532.33331
-2.9144158 1.5772619 -0.23077953 825
-2.7651196 1.2747678 -0.26455218 494
-2.7498708 1.3251143 -0.27072233 529
-2.9734066 1.5282639 -0.23241025 1385
-2.8237126 1.1937277 -0.26233804 505.75
-3.0800524 1.4869244 -0.2438111 970
-2.8853705 1.0937238 -0.2585386 491
-3.1488016 1.4633796 -0.2519868 536
-3.210175 1.4559903 -0.26159066 592
-3.3521764 1.6974688 -0.19069509 186
-2.9388418 1.0082374 -0.25655305 471.33334
-3.2013803 1.3600631 -0.24549825 472
-3.6444042 1.8383266 -0.25104848 556
-2.9600248 0.85284007 -0.23810081 244.5
-2.983932 0.93689042 -0.25572899 361
-3.267004 1.2426989 -0.240319 228.5
-3.268234 1.3092108 -0.25002977 505
-3.6536927 1.7354263 -0.23843619 1324
-3.6523442 1.7886291 -0.24539396 652
0.96847868 -4.3298712 -0.058624558 477
-3.0159616 0.8227452 -0.24663869 476
-3.3458166 1.1527002 -0.24257776 511.5
-3.3514299 1.2207237 -0.25282285 510
-3.5696678 1.5051298 -0.19631854 305.5
-3.6191616 1.6094716 -0.21689869 620
-3.6777549 1.6967043 -0.23676312 1375
0.9159987 -4.4249229 -0.065387107 1751
-3.4241614 1.1029679 -0.25082558 563.5
-3.6603546 1.3815535 -0.19462511 540
-3.7882276 1.5491947 -0.23414403 574
-4.2148128 2.218111 -0.21540082 315
-3.1063557 0.53651464 -0.23227088 207
-3.3577156 0.88719666 -0.2115352 212
-3.4545946 1.0302609 -0.2474696 598
-3.6294894 1.1772794 -0.16635075 705
-3.8143482 1.511111 -0.23337969 402
-4.4262834 2.2884796 -0.24668856 686
-3.1865239 0.48889136 -0.24640055 495
-3.5056772 0.98721337 -0.25206515 669
-3.9232321 1.4362495 -0.24094948 561
-3.218195 0.33908308 -0.23958397 467
-3.466856 0.68489099 -0.21097785 95
-3.9741595 1.3827204 -0.24259232 631
-4.5673075 2.1055861 -0.24205476 653
-3.2204785 0.23609364 -0.23145378 495.5
-3.3586667 0.46355987 -0.168175 1151
-3.5774028 0.67756128 -0.23238555 487
-3.8181963 1.0702591 -0.18447682 201
-3.9440794 1.1681441 -0.21451023 445
-4.5854721 2.0498693 -0.23812944 650
-3.232316 0.15245914 -0.22794116 518
-3.633028 0.59056759 -0.23532106 519.5
-3.6449423 0.6555953 -0.2438269 508
-4.0881987 1.1248991 -0.23289521 590
-3.2756009 0.020762801 -0.23003781 590
-3.6732802 0.45719182 -0.23186353 511
-3.6691852 0.4970336 -0.23436972 539
-4.1155357 1.0597306 -0.23083238 574
-3.2125866 -0.35038877 -0.19896896 212
-3.2185287 -0.31737947 -0.20127487 403
-3.6990509 0.40142691 -0.232674 553.5
-4.1568747 0.92487121 -0.22482941 552
-4.150188 0.99696064 -0.23039204 566
0.32721305 -4.978507 -0.095837772 1960
-3.2721219 -0.42120898 -0.21237648 320
-4.2128754 0.84309959 -0.22672933 523.5
0.27551889 -5.0285716 -0.099407285 2127
-4.2399092 0.70346189 -0.21959022 555.5
-4.2527647 0.78032315 -0.22795412 561
-4.8340445 1.5021867 -0.21388051 1543.5
-2.6477039 -1.5319567 -0.11256826 21
-4.0806575 0.4118917 -0.17150819 495
-4.2822032 0.5919497 -0.21803397 552
-4.2870064 0.64167166 -0.22257528 592
-4.9136391 1.4096477 -0.21559177 660
-3.1941719 -0.92413414 -0.19688712 120
-3.6442747 -0.29039502 -0.18333676 106
-4.3249135 0.52784765 -0.22054909 624
-4.9148817 1.3185233 -0.20800403 462
-3.4872212 -0.76775599 -0.14455292 116
-3.7145896 -0.48909235 -0.19340803 164
-3.7580619 -0.43252969 -0.20356804 244
-3.7618551 -0.33287239 -0.20675671 411
-4.109477 0.012879133 -0.15358348 1491
-5.0128841 1.2600905 -0.21552378 624
-3.7121739 -0.60793936 -0.19142413 37
-5.0688415 1.124882 -0.21195576 651
-5.074398 1.1877044 -0.21752709 660
-3.3910124 -1.2035263 -0.13443223 46
-5.1046567 1.0438075 -0.21044615 654
-3.6755252 -0.96406662 -0.18527618 208
-4.4469061 -0.01364994 -0.20999458 745
-5.1482334 0.90396762 -0.20605135 438.33334
-4.4091558 -0.20725095 -0.19578287 199
-5.144455 0.75332117 -0.19540469 219
0.22717237 -6.3461437 -0.017935529 33.5
-5.2365222 0.68211126 -0.20287995 705
0.10820532 -6.2937202 -0.010612004 44
-4.376358 -0.58793271 -0.1801548 121
-1.2195867 -4.7496109 -0.04340978 29
-1.2800671 -4.7708702 -0.04633981 54
-4.2714548 -0.90729618 -0.15942839 215
-1.3375626 -4.7717772 -0.047050849 49
-2.3213792 -3.5113988 -0.085973382 1511.5
-2.3807549 -3.4313507 -0.080317996 1666
-2.4337358 -3.344449 -0.073705181 1620.5
-2.5054793 -3.2500174 -0.068252981 1450
-2.5981042 -3.2277441 -0.073831446 2027
-3.9506218 -1.4375021 -0.11340968 190
-3.9322913 -1.3841023 -0.10905802 17
-6.1957664 1.4630694 -0.15921126 715
-1.7368447 -4.4307756 -0.016868249 1418
-1.7968541 -4.3534207 -0.010146048 1831
-1.8394759 -4.3136582 -0.0071445443 1873
-2.6812737 -3.2669544 -0.086119995 1148
-3.9802129 -1.4959285 -0.1198082 449
-4.1921 -1.2739185 -0.14902981 158
-5.2469263 0.033851147 -0.17026319 630
-6.3311028 1.4256179 -0.16918844 1219
-2.7639441 -3.3021796 -0.09799923 1633
-2.8144193 -3.291626 -0.10162381 1630
-2.8676212 -3.2077661 -0.097385816 1775
-2.9713507 -3.0789583 -0.094071388 1770
-3.0178649 -3.0273232 -0.093627915 1656
-3.0924487 -2.9389851 -0.092888124 1619.5
-3.1069169 -2.8558559 -0.086279094 1113
-3.2824206 -2.6491282 -0.088164531 1214
-4.8333902 -0.68016016 -0.09310095 299
-5.3608713 -0.019675016 -0.1832356 323
-6.3741817 1.3602786 -0.16898993 859
-2.8655763 -3.2810755 -0.10542156 2408
-2.9081924 -3.1839519 -0.098852538 1675
-2.9377608 -3.1466808 -0.097817451 1450
-3.0531828 -2.9977655 -0.094449848 1626
-3.1754212 -2.8598402 -0.094650149 1609
-3.232353 -2.8191547 -0.097536996 1735.5
-3.2871032 -2.7445016 -0.097283378 1664.5
-3.6191688 -2.3340485 -0.1077665 26
-3.6694622 -2.2568607 -0.10959586 865.66669
-4.9074554 -0.74260712 -0.1018111 246
-4.9638386 -0.63875246 -0.11123103 748
-5.406848 -0.077929497 -0.18705943 641
-6.4291344 1.2586114 -0.16777398 640.5
-4.7305679 -1.1480018 -0.074639581 1655
-4.8342977 -1.0052081 -0.088923588 1488
-4.8587885 -0.92734563 -0.092867427 1035
-4.9108124 -0.79782593 -0.10137472 344
-5.0958652 -0.5943768 -0.12973186 1099
-5.1285224 -0.54003954 -0.13533966 1076
-5.4481087 -0.19794536 -0.18813746 780
-5.4560862 -0.13720846 -0.19138873 780
-6.4883289 1.1570024 -0.16716067 636
-4.6954746 -1.2485141 -0.070021503 1528
-4.7075224 -1.197058 -0.071570173 1732
-4.7880182 -1.1057272 -0.082263894 1878
-4.8567424 -1.0644395 -0.091452375 2369
-6.5199032 1.0096962 -0.16160393 597
-6.4924192 1.0808027 -0.16308898 636
-6.5230951 0.93361664 -0.15766099 665
3.6492016 0.27936697 -0.23165625 2275
3.7413788 0.13242257 -0.23947747 1635
3.6902792 0.1800797 -0.23336665 1616
3.6455255 0.22728264 -0.22837035 1809
3.560637 0.34487128 -0.22070453 1902
3.4810143 0.40877664 -0.2113111 1733
3.456111 0.47983193 -0.21147905 2104
3.3689036 0.58782399 -0.20411827 2214
3.2997148 0.62225509 -0.19521959 1596
3.256707 0.68578124 -0.19264373 1694.5
2.1482251 1.8911923 -0.27489138 837
3.0612411 0.70838046 -0.16289856 968
2.5036902 1.3267924 -0.25912172 1877
2.4686241 1.378826 -0.2591427 1769.5
2.419091 1.4226084 -0.25572407 1254
2.0613766 1.8741198 -0.25828534 137
2.0281587 1.926421 -0.26109993 204
1.9662606 1.9536426 -0.25564778 424
1.9483466 2.0763462 -0.27264464 975
1.6547935 2.3702719 -0.28071153 293
1.2891033 2.9016781 -0.19900252 1759
1.2164752 2.9543433 -0.20128629 1476.5
1.1641515 2.9986687 -0.20419028 1489
2.2882774 1.5354881 -0.2474156 819
1.9318553 1.9772742 -0.2540791 566
1.4469512 2.4736853 -0.27255759 596
1.0437157 3.0579689 -0.20434228 1372
1.0085255 3.1437726 -0.21620788 1785
0.94790435 3.2348032 -0.22726989 1743
0.88150203 3.3194008 -0.23714149 2049.5
0.80244768 3.3764036 -0.24168555 1931.5
0.74270642 3.4209189 -0.2455886 1570
0.6752435 3.5238233 -0.25957632 1874.6666
0.59952247 3.6111078 -0.27060032 1556
0.5447582 3.6925201 -0.28209186 1906
0.45905006 3.7640169 -0.29041499 1891
2.5600317 0.94770533 -0.22737056 412
2.4068353 1.1871729 -0.22482061 1163
2.2204003 1.4002745 -0.21756569 928
1.4984531 2.3719008 -0.26027128 409.5
0.36540961 3.8101048 -0.29414663 1185
0.29696703 3.8579006 -0.29964951 1211
0.23241079 3.9358845 -0.311023 1224.5
-0.34238589 4.6227994 -0.23586038 1575
2.0759578 1.3574724 -0.18653165 1081
-0.40173435 4.6432638 -0.23774809 1472
-0.46105158 4.7322669 -0.24971068 1477
-0.52239859 4.7908559 -0.25728941 1494
-0.58501112 4.838789 -0.26338056 1445
-0.64977336 4.918582 -0.27417287 1491
2.2534616 1.0710778 -0.18309578 1096
-0.70294929 4.6742172 -0.2379469 206
1.9826785 0.97776115 -0.23033898 772
0.81604016 2.4844799 -0.20390181 785
0.99289739 2.136364 -0.26345041 42
1.0088537 2.0059116 -0.23639262 67
0.9798857 2.0529084 -0.24281831 79
2.5455737 -0.23451102 -0.14267503 1129
0.62915641 2.3351984 -0.2656756 884
2.4976273 -0.28947008 -0.13117704 1120.5
2.4177182 -0.35945117 -0.11298704 1175
2.2715311 -0.49397171 -0.18882486 1213
2.2017999 -0.55438083 -0.171404 1200.5
-1.636827 4.4533129 -0.2059893 344
-1.7604349 4.573874 -0.22463048 1319.5
2.1250339 -0.61050743 -0.15269794 1175.5
-1.8945569 4.4891434 -0.21456251 1162
-1.8474571 4.5448589 -0.22170945 1339
2.0462103 -0.6789791 -0.1339483 1115.3334
-2.1607935 4.7108698 -0.25056726 1000
-2.3434765 5.0379181 -0.30005324 597
1.9686944 -0.72814584 -0.11583233 1049
1.9302005 -0.751405 -0.10696979 1009
3.1335268 -2.3817134 -0.13898474 296.5
2.5373425 -1.5834448 -0.14837706 164
1.8976257 -0.80619478 -0.10014632 1000
3.0468574 -2.4495618 -0.12954445 89.5
2.2839754 -1.4290063 -0.094755203 248
2.245769 -1.3726509 -0.085410476 119
1.9258522 -1.0724019 -0.11437295 638
1.8903 -0.99484241 -0.10337132 820.66669
1.8417597 -0.88487411 -0.088783704 938
-1.6714382 3.5578375 -0.22869624 140
3.0193532 -2.5542796 -0.13053721 188
1.9636991 -1.2949526 -0.13344811 182
1.9163419 -1.1702142 -0.11643915 128
1.8704227 -1.1020602 -0.1029428 381
1.7531896 -0.89387369 -0.16243447 823
1.6971408 -0.9213233 -0.14844321 864
2.9435966 -2.6591213 -0.12525478 655
2.9550495 -2.60426 -0.12403295 548
1.9162652 -1.3458252 -0.12586798 452.33334
1.6374178 -0.96047962 -0.13425839 776.5
-1.3897431 2.9139144 -0.23087195 206
2.9004862 -2.7235923 -0.12279125 850.5
1.8502774 -1.4582431 -0.11872056 777
1.8722262 -1.4146227 -0.12052618 792
1.5522366 -0.98778975 -0.11301474 495.5
-1.4197735 2.8738246 -0.22336502 188
2.8284276 -2.7985148 -0.11724572 1097
1.8328454 -1.5232985 -0.1197129 566
1.613126 -1.2726018 -0.14881591 758
1.5681382 -1.2187934 -0.13297677 500
1.5238231 -1.1519378 -0.11643086 205.5
1.477967 -1.001888 -0.094182521 185
2.7528102 -2.8698494 -0.11139765 1126.5
-1.5066066 2.5320621 -0.15447825 66
2.6783829 -2.9412134 -0.10608306 1119
-1.4879719 2.3754179 -0.2295222 389
-1.6037407 2.5313797 -0.15930623 164.5
-2.7779293 4.1033731 -0.18492523 242
-2.8821535 4.1692686 -0.19752912 1001
2.5868402 -3.0309725 -0.10018165 1183
2.621557 -2.9934914 -0.10212371 1135
-2.9773493 4.1501789 -0.19869995 976.5
2.5428262 -3.0948687 -0.098977506 1252
-3.2158298 4.3070931 -0.22889769 880.5
2.4628005 -3.1596916 -0.093650021 1286.5
-3.3043008 4.2650828 -0.22723627 786
2.3992538 -3.2409139 -0.091857992 1450.5
-2.5116615 2.9923701 -0.17140117 48
-3.3228521 4.0569763 -0.20141546 314
-3.3304601 4.1854172 -0.21816131 555
2.2656035 -3.2094769 -0.073757455 1858
2.1015036 -3.1019547 -0.046542086 2080
-2.5334299 2.8974638 -0.15761858 56
-3.2735641 3.8719521 -0.17563662 150
2.0343997 -3.133266 -0.041287616 1839
-2.6110516 2.889534 -0.16154623 20
-2.6927462 2.9257786 -0.17287378 17
-3.3661754 3.7923834 -0.17009506 41
1.9623225 -3.1943173 -0.038052872 1580
-3.3421535 3.6570582 -0.15203756 185
1.9662994 -3.3129096 -0.048132874 1355
-3.0886688 3.1292753 -0.23310944 86
-3.4384332 3.6368115 -0.15448411 503
-3.5261643 3.6037898 -0.15507823 750
-3.580615 3.5757163 -0.15462944 908
-3.6291194 3.5400233 -0.1530167 974
-3.8536484 3.7104609 -0.18604702 1101
-3.9201832 3.6900337 -0.18744564 1225
-2.5444765 1.8128006 -0.10405624 608
-3.9721479 3.6523187 -0.18604448 1279
1.6387012 -3.7012076 -0.049062401 1050
-2.6274152 1.7443023 -0.10268302 729
-4.0512838 3.5965676 -0.18428521 1249
-2.7420855 1.7503662 -0.11775963 447
-4.1450982 3.5092142 -0.1800161 1234.5
-2.5478919 1.3841792 -0.13759926 581
-2.7278488 1.4813521 -0.1837106 727
-2.7785492 1.6147914 -0.10133338 341
-4.2107635 3.4389479 -0.17619923 1204
-2.8618031 1.5422781 -0.10147376 1252
-3.059751 1.8936625 -0.18028595 309
-4.2929029 3.3845034 -0.17543629 1230.5
-2.928273 1.5004447 -0.10443615 1275
-2.4849167 0.54587066 -0.086877674 28
-2.6097455 0.62401056 -0.12614772 33
-3.6242681 1.6956903 -0.090538368 1128.5
-3.7615499 1.9783601 -0.13815367 137
-3.6989825 1.6614443 -0.095099241 787
-3.5528269 1.09832 -0.14575574 899
-3.8177862 1.4154403 -0.082926974 470
-3.8653545 1.5428455 -0.10153604 944
-3.5744886 1.0631391 -0.1453412 876
-3.7655759 1.3401507 -0.069242388 290
-1.3091283 -2.2255454 -0.014881937 623.5
-1.3593261 -2.2427499 -0.022785349 576
-2.4734135 -0.93468523 -0.025873739 277
-2.5475984 -0.919397 -0.042471249 248
-3.5520701 0.27986121 -0.073730081 1322
-3.5893464 0.22772968 -0.076731563 1289
-3.6688485 0.16023195 -0.086194158 1290.5
0.2805419 -5.0246663 0.081562333 1918
-2.4399617 -1.5392078 -0.070274472 33
-3.7645068 0.090961099 -0.098656915 1402.5
-3.892909 0.040542364 -0.11795989 1299
-3.6716294 -0.56069303 -0.060673073 22
-3.736877 -0.32872725 -0.076858222 628
-4.1266398 0.040484309 -0.021332189 1511
-4.1985741 0.13699996 -0.035429537 1438.5
-4.2683706 0.21365261 -0.048521802 1473
1.7891688 -7.7101078 0.10527522 20
1.6278858 -7.4998527 0.11916369 15
-3.6704915 -0.6986537 -0.058983382 51
-3.8301058 -0.37261045 -0.091591522 517
-4.4653754 0.43466663 -0.086728349 1350
-4.5113935 0.49289894 -0.096245468 1236
1.5423779 -7.5389061 0.12074521 36
-0.043226004 -5.4179096 0.060830794 102
-0.11456704 -5.3197784 0.070155956 1079
-0.21246076 -5.2488356 0.077864051 539
-3.6917455 -0.761832 -0.062225841 99
1.4575136 -7.5817804 0.12207258 31
1.3339953 -7.4735432 0.13046421 15
-0.33564425 -5.2524729 0.080096021 1005
1.2234316 -7.4051728 0.13679275 14
1.101131 -7.274786 0.14583692 28
-0.42756629 -5.282217 0.079455771 754
-5.9122171 1.4516494 -0.13255274 831
-1.6282941 -4.3387489 -0.0040774196 12
-2.3144884 -3.4995694 0.055614557 1739
-2.3683701 -3.4104407 0.060961045 1710
-2.4455631 -3.3210986 0.06449417 1550.3334
-1.873287 -4.2499604 -0.001396399 1662
-1.9288332 -4.1745262 0.0047319867 1585
-1.9811723 -4.0957437 0.011140998 1438
-2.1365395 -3.9459233 0.020276178 1579
-2.1904521 -3.8849936 0.023991596 1729
-2.2688379 -3.8211594 0.026582859 1605
-2.6712227 -3.2524486 0.055412035 1051
-4.0330062 -1.5120414 0.011901468 725
-4.0443907 -1.4187772 0.011884574 118
-2.3529854 -3.770637 0.027203092 1809.5
-2.7663717 -3.3048725 0.044032142 1781
-2.8036716 -3.2382107 0.046931148 1619.5
-2.8690953 -3.1716371 0.047461346 1632.5
-2.9537568 -3.0929124 0.047041059 1546.3334
-3.0275128 -3.0023973 0.047949638 1590
-3.5868759 -2.2552726 0.040131491 614
-4.2533131 -1.3125201 -0.013496697 151
-3.1127832 -2.9587064 0.043875478 1717.5
-3.1749103 -2.8900261 0.043325335 1925.5
-3.2347698 -2.8197136 0.042759228 1669.5
-3.2744534 -2.7313097 0.044962388 1590
-3.6277275 -2.3374121 0.031723212 303
-3.7056003 -2.2503421 0.027328441 1767
-4.5213661 -1.2582581 -0.047579035 285
-4.112093 -1.7972558 -0.0038317163 30
-4.5660424 -1.3229785 -0.053565096 942
-5.6488166 0.060183048 -0.032474052 663
-5.5479832 -0.25487924 -0.011203337 1738
-5.6025515 -0.19271541 -0.01856266 1570
-5.6702728 -0.12896705 -0.027327038 1666
-5.713304 -0.064276695 -0.033838872 1698
-5.7783847 0.0024561882 -0.042633217 1707
4.0038376 -0.1712544 -0.10092555 1335
3.9768558 -0.11655974 -0.099470094 1410
3.8882389 -0.01070869 -0.092248023 1461
